# .PCD v0.7 - Point Cloud Data file format
VERSION 0.7
FIELDS x y z
SIZE 4 4 4
TYPE F F F
COUNT 1 1 1
WIDTH 1393
HEIGHT 1
VIEWPOINT 0 0 0 1 0 0 0
POINTS 1393
DATA ascii
0.44037578 -0.033816177 0.33048388
0.44282967 -0.049491573 0.33048388
0.44438028 -0.050980382 0.33048388
0.44787857 -0.064183936 0.33048388
0.45490062 -0.079914033 0.33048388
0.45843428 -0.09772858 0.33048388
0.44952589 -0.10506752 0.33048388
0.45436668 -0.1163372 0.33048388
0.45400319 -0.12660258 0.33048388
0.45957324 -0.13854077 0.33048388
0.4639653 -0.14882715 0.33048388
0.46054748 -0.16909084 0.33048388
0.46841308 -0.17782892 0.33048388
0.47227442 -0.1980027 0.33048388
0.46967515 -0.19478518 0.33048388
0.46819234 -0.20744228 0.33048388
0.47490144 -0.23282489 0.33048388
0.4716225 -0.23504405 0.33048388
0.48264557 -0.25561523 0.33048388
0.47876894 -0.26639515 0.33048388
0.48403221 -0.27588123 0.33048388
0.48095611 -0.29910147 0.33048388
0.48479083 -0.30471691 0.33048388
0.4824214 -0.31385949 0.33048388
0.4117752 0.27657792 0.26885721
0.40168309 0.31667465 0.31786618
0.40251064 0.31667465 0.32322058
0.39914429 0.31408486 0.33048388
0.40052098 0.3001585 0.33048388
0.40472049 0.29085183 0.33048388
0.41242099 0.28233674 0.33048388
0.40886006 0.27459511 0.33048388
0.40926164 0.27293801 0.33048388
0.40933153 0.26505509 0.33048388
0.41662765 0.2425627 0.33048388
0.41176128 0.24147177 0.33048388
0.41768384 0.23073006 0.33048388
0.41437244 0.22610444 0.33048388
0.41752139 0.21025115 0.33048388
0.41932562 0.20031759 0.33048388
0.41768658 0.18986797 0.33048388
0.42580172 0.1852344 0.33048388
0.42910248 0.16642033 0.33048388
0.42342478 0.16246741 0.33048388
0.43097541 0.1452854 0.33048388
0.43307027 0.13984782 0.33048388
0.42995152 0.12650585 0.33048388
0.42948073 0.12151226 0.33048388
0.43331045 0.10125512 0.33048388
0.43585169 0.10226397 0.33048388
0.43832242 0.082298398 0.33048388
0.44110373 0.075832263 0.33048388
0.44100124 0.064463563 0.33048388
0.44063455 0.053149272 0.33048388
0.43836346 0.046125252 0.33048388
0.44073457 0.030352315 0.33048388
0.44771373 0.031741712 0.33048388
0.4449814 0.017124342 0.33048388
0.44581914 0.0051394785 0.33048388
0.44654143 -0.013057258 0.33048388
0.45810783 -0.018842231 0.33048388
0.45420173 -0.030693669 0.33048388
0.45671344 -0.034411844 0.33048388
0.46247309 -0.059015173 0.33048388
0.46263593 -0.076635651 0.33048388
0.46042067 -0.076458991 0.33048388
0.46826831 -0.093388774 0.33048388
0.46987742 -0.10950861 0.33048388
0.46253449 -0.11578569 0.33048388
0.46532106 -0.13053386 0.33048388
0.47527495 -0.15020388 0.33048388
0.47006434 -0.14480124 0.33048388
0.47660857 -0.1764828 0.33048388
0.47819218 -0.17633848 0.33048388
0.47851127 -0.18886231 0.33048388
0.47901306 -0.19702023 0.33048388
0.48085707 -0.22286323 0.33048388
0.4883233 -0.2318383 0.33048388
0.48117745 -0.24408747 0.33048388
0.48912567 -0.25691095 0.33048388
0.4913812 -0.27623904 0.33048388
0.49860314 -0.29001799 0.33048388
0.4989132 -0.28781956 0.33048388
0.42053542 0.27657792 0.26347905
0.41119748 0.31667465 0.32116687
0.40775704 0.31667465 0.32397488
0.41272917 0.3061156 0.33048388
0.41200042 0.30019596 0.33048388
0.41075587 0.29907796 0.33048388
0.41608599 0.27805167 0.33048388
0.41500556 0.27523977 0.33048388
0.42154372 0.27421054 0.33048388
0.41553506 0.26008049 0.33048388
0.41970682 0.25370207 0.33048388
0.42196661 0.23332873 0.33048388
0.4285664 0.22883064 0.33048388
0.42790124 0.21700831 0.33048388
0.4277111 0.20658094 0.33048388
0.42728281 0.19486122 0.33048388
0.43429697 0.19703138 0.33048388
0.43370011 0.18125948 0.33048388
0.43366593 0.16608979 0.33048388
0.43941653 0.15761332 0.33048388
0.44079036 0.1443948 0.33048388
0.43856934 0.13780624 0.33048388
0.44208738 0.13268703 0.33048388
0.44162834 0.11338453 0.33048388
0.44721249 0.11448684 0.33048388
0.44696695 0.094884016 0.33048388
0.44751307 0.08411067 0.33048388
0.44948918 0.079723999 0.33048388
0.45094743 0.067951314 0.33048388
0.44938457 0.063848309 0.33048388
0.4531959 0.051123857 0.33048388
0.45679623 0.028913161 0.33048388
0.45918998 0.020025549 0.33048388
0.45926124 0.0078270528 0.33048388
0.46022302 0.0020204734 0.33048388
0.46123159 -0.01203869 0.33048388
0.460776 -0.017579345 0.33048388
0.46157223 -0.034477703 0.33048388
0.46236074 -0.04539014 0.33048388
0.47004855 -0.053237543 0.33048388
0.47143045 -0.064434633 0.33048388
0.47073188 -0.078840517 0.33048388
0.47007403 -0.10045305 0.33048388
0.47792631 -0.10014172 0.33048388
0.47941342 -0.11325684 0.33048388
0.47670817 -0.12544426 0.33048388
0.48189121 -0.13568187 0.33048388
0.48292902 -0.15116833 0.33048388
0.49132007 -0.17246504 0.33048388
0.48521304 -0.17802529 0.33048388
0.49174082 -0.18821076 0.33048388
0.49038848 -0.20066535 0.33048388
0.49711779 -0.20698522 0.33048388
0.49887371 -0.22754295 0.33048388
0.49390027 -0.24516208 0.33048388
0.49997136 -0.26913074 0.33048388
0.49872696 -0.29085794 0.33048388
0.42744017 0.27657792 0.27087843
0.42157948 0.31667465 0.31757528
0.42054847 0.31667465 0.32179475
0.42457321 0.31098536 0.33048388
0.42378858 0.29938975 0.33048388
0.42215627 0.2983253 0.33048388
0.4259184 0.2831406 0.33048388
0.42863131 0.27970818 0.33048388
0.43228683 0.26982975 0.33048388
0.429461 0.25754192 0.33048388
0.43202722 0.24596775 0.33048388
0.43660632 0.23654056 0.33048388
0.4304136 0.22658707 0.33048388
0.43799242 0.21250708 0.33048388
0.43727008 0.2139585 0.33048388
0.44286889 0.20054153 0.33048388
0.44439703 0.19099724 0.33048388
0.44011223 0.17227182 0.33048388
0.44682336 0.1707239 0.33048388
0.44509378 0.16033913 0.33048388
0.44225177 0.15315992 0.33048388
0.44576541 0.13848521 0.33048388
0.44854212 0.12817593 0.33048388
0.45479122 0.11766938 0.33048388
0.45500278 0.10870734 0.33048388
0.45190534 0.098103479 0.33048388
0.45879391 0.081146933 0.33048388
0.45364061 0.076760001 0.33048388
0.45705312 0.063953251 0.33048388
0.46634567 0.057838637 0.33048388
0.46386188 0.041891381 0.33048388
0.46645615 0.03578686 0.33048388
0.46276766 0.014127453 0.33048388
0.47098348 0.013720883 0.33048388
0.47142482 0.0088989967 0.33048388
0.47270781 -0.0066752043 0.33048388
0.46841851 -0.020720461 0.33048388
0.47280344 -0.037560858 0.33048388
0.4815664 -0.042783637 0.33048388
0.48065203 -0.062166732 0.33048388
0.48184922 -0.071094662 0.33048388
0.48814929 -0.079999097 0.33048388
0.4874483 -0.094046876 0.33048388
0.49051633 -0.098633215 0.33048388
0.48419961 -0.11384334 0.33048388
0.48612529 -0.12674266 0.33048388
0.49438769 -0.1427905 0.33048388
0.49106935 -0.15893196 0.33048388
0.4916904 -0.16531628 0.33048388
0.49735281 -0.17651166 0.33048388
0.49584973 -0.19804811 0.33048388
0.49850735 -0.21166278 0.33048388
0.42946172 0.31667465 0.31430084
0.42520684 0.31667465 0.31768227
0.43275747 0.31667465 0.32280877
0.43057841 0.30833367 0.33048388
0.4319669 0.30274022 0.33048388
0.43068111 0.29346961 0.33048388
0.43385133 0.28096935 0.33048388
0.43196705 0.27936691 0.33048388
0.43329623 0.26770532 0.33048388
0.43855798 0.26257172 0.33048388
0.44337261 0.24633183 0.33048388
0.44298485 0.23444308 0.33048388
0.43936205 0.22850034 0.33048388
0.44859716 0.22377653 0.33048388
0.44624957 0.21414478 0.33048388
0.44549629 0.20195974 0.33048388
0.45254126 0.1849039 0.33048388
0.44954205 0.18713333 0.33048388
0.4572593 0.16709554 0.33048388
0.45734379 0.15431456 0.33048388
0.45041284 0.1527558 0.33048388
0.45711815 0.1373731 0.33048388
0.45603096 0.12655772 0.33048388
0.46516401 0.124955 0.33048388
0.46550986 0.11290483 0.33048388
0.46362743 0.09443441 0.33048388
0.4670347 0.084435672 0.33048388
0.47016621 0.083351374 0.33048388
0.47036916 0.070077494 0.33048388
0.46853021 0.055062283 0.33048388
0.47633904 0.044643875 0.33048388
0.4744409 0.029462693 0.33048388
0.47968552 0.022529507 0.33048388
0.47490379 0.014197378 0.33048388
0.48411268 -0.00032432558 0.33048388
0.48038307 -0.0065068053 0.33048388
0.48131973 -0.014672636 0.33048388
0.48852655 -0.037142094 0.33048388
0.48777097 -0.041419994 0.33048388
0.48896965 -0.054063816 0.33048388
0.48724538 -0.071454607 0.33048388
0.49492201 -0.081351779 0.33048388
0.49818569 -0.093456693 0.33048388
0.49539319 -0.10509203 0.33048388
0.49468645 -0.10904185 0.33048388
0.44474739 0.29582924 0.27778977
0.44016442 0.31667465 0.31967983
0.43962955 0.31667465 0.32288143
0.44079542 0.30946296 0.33048388
0.43841141 0.29974866 0.33048388
0.44235367 0.2932418 0.33048388
0.44191995 0.28852662 0.33048388
0.44771203 0.27689546 0.33048388
0.45042419 0.26857591 0.33048388
0.44876364 0.25295335 0.33048388
0.45366031 0.25018999 0.33048388
0.44992602 0.23638554 0.33048388
0.44827273 0.22764407 0.33048388
0.4556542 0.21615276 0.33048388
0.45135361 0.21019645 0.33048388
0.45536637 0.20498614 0.33048388
0.45605952 0.1889046 0.33048388
0.46199298 0.18122444 0.33048388
0.46537936 0.16522403 0.33048388
0.46422994 0.15909758 0.33048388
0.46317986 0.15217106 0.33048388
0.46623456 0.1401909 0.33048388
0.4646084 0.13194102 0.33048388
0.46613863 0.11806701 0.33048388
0.47779924 0.10267909 0.33048388
0.46903971 0.10058533 0.33048388
0.47433919 0.080327749 0.33048388
0.47856155 0.076422103 0.33048388
0.47582534 0.061580855 0.33048388
0.47785762 0.059828956 0.33048388
0.47989622 0.039673012 0.33048388
0.48640767 0.02985066 0.33048388
0.48600602 0.023938458 0.33048388
0.48915938 0.017293302 0.33048388
0.49339357 -0.0065970179 0.33048388
0.49139956 -0.018999718 0.33048388
0.49103394 -0.025364365 0.33048388
0.49881893 -0.03234788 0.33048388
0.49902809 -0.046951763 0.33048388
0.49772915 -0.052669391 0.33048388
0.49979973 -0.064568393 0.33048388
0.44613513 0.31667465 0.3148647
0.44977933 0.31667465 0.31859019
0.452236 0.31667465 0.32716411
0.44304585 0.31667465 0.32984385
0.45016524 0.30319837 0.33048388
0.44725823 0.29541108 0.33048388
0.45688733 0.28034115 0.33048388
0.44922072 0.28121617 0.33048388
0.45347068 0.26668289 0.33048388
0.45624232 0.25947195 0.33048388
0.45597801 0.24819972 0.33048388
0.46403593 0.24618688 0.33048388
0.46228144 0.23532067 0.33048388
0.4657945 0.21669851 0.33048388
0.46178758 0.20473936 0.33048388
0.46701881 0.19716339 0.33048388
0.4699474 0.19824906 0.33048388
0.46617642 0.17896208 0.33048388
0.47600874 0.17598498 0.33048388
0.47105154 0.15468648 0.33048388
0.47055742 0.15385306 0.33048388
0.47244829 0.14374627 0.33048388
0.48146817 0.12126864 0.33048388
0.4807052 0.12285104 0.33048388
0.47758114 0.11571175 0.33048388
0.48100129 0.10033102 0.33048388
0.48414901 0.092146911 0.33048388
0.48905569 0.073152728 0.33048388
0.48476049 0.070080608 0.33048388
0.48957744 0.055680994 0.33048388
0.49775106 0.041667562 0.33048388
0.49198067 0.032963753 0.33048388
0.49434999 0.017457223 0.33048388
0.49564022 -0.00018572666 0.33048388
0.4595845 0.30011445 0.28683427
0.45868766 0.31667465 0.31505561
0.45576751 0.31667465 0.32188946
0.45515504 0.31667465 0.32997203
0.45705381 0.30666465 0.33048388
0.46130428 0.30076161 0.33048388
0.45997992 0.28937727 0.3347494
0.45905149 0.281394 0.33048388
0.46821746 0.27253026 0.33048388
0.46172506 0.25872716 0.33048388
0.46736911 0.24285939 0.33048388
0.46468571 0.24175297 0.33048388
0.47262478 0.22864662 0.33048388
0.47637564 0.21564923 0.33048388
0.4773989 0.21297568 0.33048388
0.47301406 0.19530082 0.33048388
0.48053944 0.18785009 0.33048388
0.48296177 0.17806342 0.33048388
0.4833402 0.16301848 0.33048388
0.48675022 0.15492269 0.33048388
0.48637319 0.15022808 0.33048388
0.48923597 0.14005914 0.33048388
0.48846313 0.12733985 0.33048388
0.48444054 0.1199464 0.33048388
0.49490243 0.10577291 0.33048388
0.49406016 0.10431565 0.33048388
0.49131554 0.08579272 0.33048388
0.49501103 0.079715841 0.33048388
0.49764884 0.061388206 0.33048388
0.47242922 0.29582924 0.28334647
0.46902835 0.29582924 0.29045334
0.46347287 0.31667465 0.31936511
0.46261716 0.31256962 0.33048388
0.46450675 0.30865502 0.33048388
0.46628085 0.29967359 0.33343667
0.47075266 0.29434186 0.33682373
0.47588366 0.26919159 0.33048388
0.47668573 0.26564276 0.33048388
0.47139701 0.26440367 0.33048388
0.47476891 0.25410345 0.33048388
0.47654513 0.24375449 0.33048388
0.48080584 0.23198609 0.33048388
0.48539633 0.22323211 0.33048388
0.48076412 0.20815952 0.33048388
0.48169413 0.19716044 0.33048388
0.48983786 0.18674918 0.33048388
0.48982453 0.18841931 0.33048388
0.49006271 0.16741574 0.33048388
0.49456382 0.1653446 0.33048388
0.49380174 0.15438756 0.33048388
0.49899772 0.14653948 0.33048388
0.49425843 0.12825345 0.33048388
0.49910963 0.12452854 0.33048388
0.49629271 0.1060118 0.33048388
0.47613695 0.29582924 0.2875956
0.47145945 0.31667465 0.31615838
0.47367692 0.31667465 0.33005965
0.47800705 0.31667465 0.33026487
0.4803353 0.30845359 0.33048388
0.48021364 0.29773179 0.33048388
0.47425333 0.29256868 0.33547556
0.47804943 0.27208945 0.33048388
0.48094633 0.26797572 0.33048388
0.48265165 0.2597236 0.33048388
0.48325443 0.24074925 0.33048388
0.48381716 0.23823482 0.33048388
0.48771703 0.22588417 0.33048388
0.48758441 0.21658823 0.33048388
0.49669722 0.20775361 0.33048388
0.49184802 0.19400865 0.33048388
0.49933884 0.18794912 0.33048388
0.49856812 0.17856425 0.33048388
0.49582684 0.17179154 0.33048388
0.49955592 0.14969684 0.33048388
0.48239791 0.31667465 0.32264128
0.48204529 0.31667465 0.32469714
0.48216131 0.30816406 0.33048388
0.48589173 0.29960576 0.33048388
0.48933911 0.29657787 0.33048388
0.48640636 0.28515452 0.33048388
0.48798966 0.26808313 0.33048388
0.49249646 0.26839361 0.33048388
0.49802017 0.25859451 0.33048388
0.49717268 0.24174114 0.33048388
0.49458894 0.23570009 0.33048388
0.49798107 0.22256634 0.33048388
0.49014503 0.31667465 0.31451991
0.4959406 0.31667465 0.32098544
0.49092609 0.31203359 0.33048388
0.49153924 0.30768338 0.33048388
0.49403375 0.2854344 0.33048388
0.49865356 0.27640975 0.33048388
0.49971282 0.31667465 0.3159216
0.49632722 0.31411421 0.33048388
0.49963719 0.31667465 0.32849786
-0.5 -0.30423561 0.31380528
-0.49870485 -0.30423847 0.33048388
-0.4991622 -0.31392983 0.33048388
-0.5 -0.30059233 0.3257823
-0.49858472 -0.29930383 0.33048388
-0.4950425 -0.30426684 0.33048388
-0.5 -0.28358096 0.31282651
-0.5 -0.28110519 0.31825709
-0.49295008 -0.28321999 0.33048388
-0.4923051 -0.28751558 0.33048388
-0.47837254 -0.30318397 0.33048388
-0.47887421 -0.31126431 0.33048388
-0.46844795 -0.31536007 0.33048388
-0.47630614 -0.28572434 0.14767744
-0.47630614 -0.29154214 0.17180994
-0.47630614 -0.29016399 0.1740592
-0.47630614 -0.28901801 0.21775666
-0.47630614 -0.28417757 0.26589373
-0.5 -0.25564653 0.31382239
-0.5 -0.26968759 0.31446066
-0.49605259 -0.26372153 0.33048388
-0.49340591 -0.26824859 0.33048388
-0.48626775 -0.27648273 0.33048388
-0.47820869 -0.28773659 0.33273152
-0.47813112 -0.29230013 0.33343285
-0.47302887 -0.30844963 0.33048388
-0.47630614 -0.27904356 0.13143876
-0.47944838 -0.26822826 0.15052219
-0.47681078 -0.27511963 0.15771282
-0.47674948 -0.2795454 0.15645398
-0.47630614 -0.27400073 0.17018609
-0.47630614 -0.27687842 0.17747608
-0.47630614 -0.2747294 0.19437476
-0.47630614 -0.27914706 0.19120538
-0.47630614 -0.28000093 0.20331673
-0.47630614 -0.2740081 0.21957713
-0.47630614 -0.28447589 0.21977104
-0.47630614 -0.27679789 0.23193817
-0.47630614 -0.27545831 0.24856955
-0.47630614 -0.2812086 0.25686714
-0.47630614 -0.28251696 0.26386854
-0.5 -0.2425705 0.3187317
-0.47630614 -0.2836192 0.27230257
-0.49825528 -0.24034655 0.33048388
-0.48808244 -0.25403789 0.33048388
-0.48419979 -0.26245031 0.33048388
-0.47639728 -0.27652273 0.33048388
-0.47613785 -0.28010818 0.33048388
-0.47556689 -0.28375855 0.33261082
-0.46871465 -0.28923729 0.33768091
-0.46044633 -0.30599463 0.33048388
-0.44861439 -0.31400147 0.33048388
-0.47630614 -0.25889748 0.1447072
-0.47929499 -0.2679657 0.14650676
-0.47630614 -0.25569212 0.16529009
-0.47630614 -0.25884935 0.17293043
-0.47630614 -0.26588306 0.17975807
-0.47630614 -0.26692483 0.18913561
-0.47630614 -0.2665869 0.20156841
-0.47630614 -0.26161486 0.21605176
-0.47630614 -0.26362434 0.21520783
-0.47630614 -0.26057851 0.22394642
-0.47630614 -0.26046187 0.23841199
-0.47630614 -0.26035753 0.25366634
-0.47630614 -0.26340947 0.25097752
-0.47630614 -0.26954913 0.25911468
-0.47630614 -0.26182264 0.27129287
-0.5 -0.22699428 0.32537448
-0.49662134 -0.22979794 0.33048388
-0.4914929 -0.23561074 0.33048388
-0.4858163 -0.25187233 0.33048388
-0.48502663 -0.25865123 0.33048388
-0.47558558 -0.26876569 0.33048388
-0.47398627 -0.26996547 0.33048388
-0.46724215 -0.2818633 0.33282807
-0.45631284 -0.28998724 0.33048388
-0.44874212 -0.30258939 0.33048388
-0.44739422 -0.30674672 0.33048388
-0.44232923 -0.30697927 0.33048388
-0.46685982 -0.25569212 0.1355363
-0.46650505 -0.25569212 0.15304542
-0.46905795 -0.25569212 0.16487798
-0.46552405 -0.25569212 0.16990957
-0.47218838 -0.25569212 0.18434721
-0.47191674 -0.25569212 0.19319932
-0.4707182 -0.25569212 0.19799939
-0.46540111 -0.25569212 0.20272598
-0.47088033 -0.25569212 0.22550851
-0.46491894 -0.25569212 0.22200625
-0.46651062 -0.25569212 0.23987849
-0.46898213 -0.25569212 0.24680039
-0.4682065 -0.25569212 0.25312263
-0.5 -0.21212278 0.31624237
-0.5 -0.2138662 0.3245371
-0.5 -0.22027272 0.32638016
-0.48855874 -0.22724721 0.33048388
-0.49033567 -0.23154429 0.33048388
-0.48225254 -0.23949879 0.33048388
-0.47923499 -0.24303012 0.33048388
-0.46540606 -0.26413894 0.33048388
-0.46371624 -0.26068935 0.33048388
-0.45060828 -0.28214183 0.33048388
-0.45274687 -0.27789968 0.33048388
-0.44582528 -0.29512739 0.33048388
-0.43714789 -0.30616647 0.33048388
-0.43343738 -0.30519846 0.33048388
-0.428976 -0.30966797 0.33048388
-0.46076721 -0.25547144 0.13974175
-0.46023771 -0.24961762 0.1560531
-0.4600451 -0.2427689 0.16198683
-0.46003708 -0.25418207 0.16223393
-0.45905173 -0.25248706 0.1813637
-0.45904601 -0.25569212 0.18927749
-0.45780835 -0.25569212 0.19108801
-0.45868289 -0.25569212 0.19463301
-0.45761073 -0.25270715 0.20663513
-0.45782733 -0.25400987 0.2205296
-0.45804992 -0.24703594 0.23480839
-0.46073994 -0.25569212 0.24056147
-0.5 -0.19247839 0.31745881
-0.5 -0.19833389 0.32521918
-0.4914273 -0.19994444 0.33048388
-0.48582458 -0.20785052 0.33048388
-0.4894087 -0.21144024 0.33048388
-0.47460228 -0.22793745 0.33048388
-0.47145134 -0.2375101 0.33048388
-0.46985868 -0.24034244 0.33048388
-0.45617011 -0.2492719 0.33048388
-0.45883155 -0.2612378 0.33048388
-0.45024157 -0.26657543 0.33048388
-0.44450346 -0.27125114 0.33048388
-0.44429186 -0.27877003 0.33048388
-0.42868572 -0.29289657 0.33048388
-0.41860926 -0.30895224 0.33048388
-0.41891521 -0.30509207 0.33048388
-0.46046579 -0.2310673 0.1490275
-0.4600949 -0.2332456 0.1604528
-0.45957938 -0.23493156 0.1763335
-0.45948902 -0.23480235 0.17911726
-0.45723066 -0.23761709 0.18225552
-0.45745808 -0.23975565 0.19684398
-0.45759141 -0.2422214 0.2053965
-0.45771074 -0.23967212 0.21305065
-0.45793423 -0.23719706 0.22738609
-0.45797372 -0.23485766 0.22991876
-0.4581275 -0.23483759 0.2397829
-0.5 -0.17349885 0.32293734
-0.49919829 -0.17394412 0.33048388
-0.5 -0.18270284 0.32973197
-0.48725605 -0.20055234 0.33048388
-0.48645055 -0.20661092 0.33048388
-0.47926664 -0.21060671 0.33048388
-0.469145 -0.21967286 0.33048388
-0.46879622 -0.23154601 0.33048388
-0.46639818 -0.22772005 0.33048388
-0.45819414 -0.24802241 0.33048388
-0.44928682 -0.25553313 0.33048388
-0.44559807 -0.25558385 0.33048388
-0.43373114 -0.27703097 0.33048388
-0.42963031 -0.28211728 0.33048388
-0.42443693 -0.29020029 0.33048388
-0.42150405 -0.29664853 0.33048388
-0.4128328 -0.30001515 0.33048388
-0.41262859 -0.31302288 0.33048388
-0.45987576 -0.2217938 0.16720328
-0.46000624 -0.22606412 0.16318396
-0.45725006 -0.21367365 0.18350048
-0.45722994 -0.21997868 0.18221106
-0.45742062 -0.22436729 0.19444181
-0.45745263 -0.22981857 0.1964934
-0.45778862 -0.22480476 0.21804607
-0.45804325 -0.21258515 0.2343787
-0.45791814 -0.22606826 0.22635336
-0.5 -0.16097784 0.31208912
-0.5 -0.17030567 0.31498483
-0.49870929 -0.16244066 0.33048388
-0.5 -0.17163622 0.32742155
-0.48813099 -0.18067101 0.33048388
-0.48848829 -0.18622808 0.33048388
-0.47556722 -0.19049703 0.33048388
-0.47099715 -0.1976997 0.33048388
-0.46379918 -0.20944804 0.33048388
-0.46196407 -0.22143036 0.33048388
-0.45362213 -0.23008007 0.33048388
-0.4468312 -0.23413047 0.33048388
-0.44104758 -0.24107803 0.33048388
-0.44033501 -0.24612044 0.33048388
-0.42896906 -0.26583987 0.33048388
-0.42076632 -0.2748743 0.33048388
-0.41527903 -0.2758171 0.33048388
-0.40657854 -0.28700826 0.33048388
-0.40425244 -0.29756054 0.33048388
-0.39926291 -0.29915607 0.33048388
-0.39630026 -0.31528777 0.33048388
-0.45985839 -0.21115148 0.16773836
-0.45976925 -0.20513685 0.1704848
-0.45728406 -0.20809627 0.18568233
-0.4575164 -0.2012563 0.20058583
-0.45776632 -0.20079844 0.21661592
-0.45780259 -0.2029608 0.21894304
-0.45780626 -0.21255973 0.21917777
-0.45796883 -0.2094225 0.22960594
-0.5 -0.14313515 0.31322679
-0.5 -0.15861544 0.31896019
-0.49633998 -0.15412582 0.33048388
-0.48687097 -0.15847431 0.33048388
-0.49095109 -0.15933196 0.33048388
-0.48810512 -0.16814949 0.33048388
-0.47788075 -0.17694072 0.33048388
-0.47764859 -0.1879905 0.33048388
-0.46894702 -0.19559813 0.33048388
-0.46060652 -0.20449176 0.33048388
-0.45391357 -0.2075157 0.33048388
-0.45222804 -0.21564357 0.33048388
-0.44729728 -0.23049976 0.33048388
-0.43959457 -0.23323515 0.33048388
-0.4328047 -0.24386765 0.33048388
-0.41910076 -0.26107493 0.33048388
-0.41583198 -0.26226303 0.33048388
-0.41458172 -0.27513027 0.33048388
-0.40371895 -0.27909127 0.33048388
-0.4030599 -0.29143509 0.33048388
-0.39767018 -0.29749712 0.33048388
-0.3906742 -0.30513927 0.33048388
-0.37716702 -0.31552723 0.33048388
-0.45854536 -0.18840191 0.18134727
-0.45723435 -0.19514798 0.18249267
-0.45738754 -0.19708022 0.19231857
-0.45763198 -0.19421503 0.20799832
-0.45782009 -0.19255009 0.22006565
-0.45794764 -0.1880967 0.22824582
-0.45812944 -0.19037387 0.23990805
-0.5 -0.13400738 0.31343067
-0.5 -0.1306562 0.32637116
-0.5 -0.13840993 0.33019084
-0.49470797 -0.1420503 0.33048388
-0.49054122 -0.14668429 0.33048388
-0.48126334 -0.15248878 0.33048388
-0.47813272 -0.16309504 0.33048388
-0.47216606 -0.16951744 0.33048388
-0.46364671 -0.17726386 0.33048388
-0.45782271 -0.18929583 0.33048388
-0.45401555 -0.20009826 0.33048388
-0.44698843 -0.20009604 0.33048388
-0.44296929 -0.21895234 0.33048388
-0.43233207 -0.22292028 0.33048388
-0.4274503 -0.23182772 0.33048388
-0.4223491 -0.24427378 0.33048388
-0.41402534 -0.25181603 0.33048388
-0.41272449 -0.26294693 0.33048388
-0.40692493 -0.2637338 0.33048388
-0.39562964 -0.27561107 0.33048388
-0.39223999 -0.28060317 0.33048388
-0.38595966 -0.28509709 0.33048388
-0.37986088 -0.30325538 0.33048388
-0.37516761 -0.31110358 0.33048388
-0.45684814 -0.17762631 0.18831627
-0.45733497 -0.18503578 0.18894686
-0.45138201 -0.17762373 0.20125486
-0.45395851 -0.17762484 0.21173169
-0.45787609 -0.17807484 0.2236563
-0.45779395 -0.1776264 0.23675284
-0.5 -0.11395359 0.31708378
-0.49853954 -0.11084238 0.33048388
-0.49613515 -0.1224193 0.33048388
-0.49499813 -0.12450489 0.33048388
-0.48389107 -0.13410231 0.33048388
-0.48124003 -0.1427633 0.33048388
-0.47051376 -0.15130523 0.33048388
-0.47245789 -0.15533045 0.33048388
-0.46777618 -0.16938631 0.33048388
-0.45522806 -0.17885096 0.33048388
-0.45523635 -0.18004666 0.33048388
-0.44795382 -0.18876824 0.33048388
-0.44644913 -0.19401862 0.33048388
-0.43423912 -0.20732562 0.33048388
-0.42572811 -0.2188313 0.33048388
-0.42222384 -0.22949564 0.33048388
-0.41688353 -0.23843685 0.33048388
-0.4146246 -0.23764299 0.33048388
-0.40540141 -0.24725515 0.33048388
-0.4001824 -0.25966233 0.33048388
-0.3893114 -0.26686293 0.33048388
-0.38608333 -0.27604622 0.33048388
-0.37670091 -0.28257889 0.33048388
-0.37352172 -0.29402164 0.33048388
-0.36824444 -0.30783373 0.33048388
-0.36178932 -0.31155923 0.33048388
-0.46173432 -0.15812929 0.20530722
-0.45139664 -0.17762379 0.19498797
-0.4621774 -0.14698304 0.23372799
-0.46221611 -0.15154961 0.23621103
-0.46224526 -0.15895829 0.2380814
-0.5 -0.094301924 0.31938094
-0.5 -0.10139937 0.32430011
-0.49469665 -0.10519621 0.33048388
-0.49117267 -0.11508938 0.33048388
-0.48820111 -0.12655249 0.33048388
-0.48597455 -0.12642089 0.33048388
-0.47666377 -0.14203428 0.33048388
-0.47461128 -0.14498068 0.33048388
-0.46218175 -0.15214561 0.33048388
-0.46285897 -0.16217799 0.33048388
-0.45831513 -0.16626304 0.33048388
-0.44797775 -0.17638695 0.33048388
-0.43822503 -0.18904656 0.33048388
-0.4333362 -0.19006948 0.33048388
-0.43132618 -0.19559701 0.33048388
-0.42232868 -0.20902598 0.33048388
-0.41572899 -0.21835898 0.33048388
-0.40722436 -0.23261106 0.33048388
-0.39811373 -0.23924507 0.33048388
-0.39927027 -0.24130824 0.33048388
-0.39006317 -0.25815034 0.33048388
-0.38056546 -0.25905499 0.33048388
-0.37535742 -0.26876843 0.33048388
-0.37576416 -0.27440047 0.33048388
-0.36334541 -0.28767049 0.33048388
-0.3587245 -0.29059806 0.33048388
-0.35377681 -0.29802096 0.33048388
-0.35398361 -0.30822101 0.33048388
-0.46198288 -0.14546575 0.22124995
-0.46212438 -0.1456991 0.23032776
-0.4621684 -0.14264886 0.23314962
-0.46233624 -0.13817422 0.24391638
-0.5 -0.088311821 0.32202896
-0.5 -0.095934734 0.3210378
-0.49392357 -0.089896232 0.33048388
-0.49253696 -0.10251351 0.33048388
-0.48176271 -0.10762398 0.33048388
-0.47847912 -0.11699776 0.33048388
-0.47056231 -0.12563758 0.33048388
-0.47007918 -0.13207291 0.33048388
-0.46489242 -0.14088754 0.33048388
-0.46003911 -0.15128335 0.33048388
-0.45255423 -0.16085628 0.33048388
-0.44124073 -0.16522057 0.33048388
-0.44337291 -0.1661284 0.33048388
-0.42848977 -0.17843972 0.33048388
-0.43206343 -0.17926189 0.33048388
-0.42153788 -0.19398408 0.33048388
-0.41739428 -0.19589448 0.33048388
-0.41318747 -0.20752664 0.33048388
-0.40568727 -0.21524823 0.33048388
-0.39534929 -0.22504677 0.33048388
-0.38933417 -0.24265376 0.33048388
-0.37962165 -0.2474408 0.33048388
-0.37728909 -0.25926399 0.33048388
-0.37452134 -0.26199028 0.33048388
-0.36821371 -0.26706284 0.33048388
-0.36398572 -0.27533436 0.33048388
-0.35661292 -0.2869015 0.33048388
-0.35320237 -0.29618976 0.33048388
-0.34277189 -0.30305824 0.33048388
-0.33127064 -0.31610924 0.33048388
-0.46202585 -0.13311255 0.22400726
-0.46227077 -0.12005591 0.23971626
-0.5 -0.075561762 0.31277379
-0.5 -0.077027477 0.31721315
-0.5 -0.079603568 0.32463962
-0.49098906 -0.08256989 0.33048388
-0.48502335 -0.091158807 0.33048388
-0.48836824 -0.089773342 0.33048388
-0.47730649 -0.097822249 0.33048388
-0.47137514 -0.11401431 0.33048388
-0.46750778 -0.11289672 0.33048388
-0.46504462 -0.12466896 0.33048388
-0.45869109 -0.12552828 0.33048388
-0.44701791 -0.14008698 0.33048388
-0.43819541 -0.14891295 0.33048388
-0.43710151 -0.16327357 0.33048388
-0.43422851 -0.16204353 0.33048388
-0.42284518 -0.17586757 0.33048388
-0.420151 -0.17855163 0.33048388
-0.41359082 -0.19452682 0.33048388
-0.40326044 -0.19741482 0.33048388
-0.39812922 -0.20481354 0.33048388
-0.39546052 -0.20889641 0.33048388
-0.39081886 -0.22312111 0.33048388
-0.38574475 -0.23782514 0.33048388
-0.37360054 -0.24145384 0.33048388
-0.37180942 -0.25097045 0.33048388
-0.36146799 -0.25890473 0.33048388
-0.35527858 -0.26827055 0.33048388
-0.34975311 -0.26545376 0.33048388
-0.35048336 -0.27579042 0.33048388
-0.34082696 -0.29581907 0.33048388
-0.33288971 -0.30070025 0.33048388
-0.32366118 -0.30124825 0.33048388
-0.5 -0.055450562 0.31316447
-0.46238625 -0.115663 0.24712393
-0.5 -0.057847705 0.32019493
-0.49795881 -0.061187658 0.33048388
-0.49269989 -0.06910003 0.33048388
-0.49163738 -0.071658827 0.33048388
-0.48569214 -0.082942076 0.33048388
-0.48071179 -0.08305975 0.33048388
-0.4754591 -0.092365079 0.33048388
-0.47037101 -0.09929157 0.33048388
-0.45823541 -0.1123561 0.33048388
-0.45277968 -0.11392856 0.33048388
-0.44905365 -0.12531994 0.33048388
-0.44658539 -0.13711412 0.33048388
-0.43778348 -0.14185289 0.33048388
-0.4330667 -0.14525451 0.33048388
-0.42828721 -0.16067082 0.33048388
-0.41860682 -0.16086116 0.33048388
-0.41423488 -0.16728231 0.33048388
-0.41383752 -0.17938808 0.33048388
-0.40609145 -0.18437479 0.33048388
-0.39706814 -0.19699098 0.33048388
-0.39456159 -0.20803986 0.33048388
-0.38474566 -0.21684501 0.33048388
-0.38228428 -0.22453141 0.33048388
-0.36672926 -0.22655225 0.33048388
-0.36303064 -0.24710344 0.33048388
-0.35561699 -0.2480686 0.33048388
-0.35129142 -0.25352246 0.33048388
-0.33890337 -0.27409145 0.33048388
-0.33395791 -0.27937999 0.33048388
-0.33235914 -0.28326938 0.33048388
-0.32934001 -0.29262003 0.33048388
-0.31773168 -0.30410436 0.33048388
-0.3176361 -0.3102937 0.33048388
-0.5 -0.038241088 0.31964856
-0.5 -0.046809684 0.32261622
-0.5 -0.046869874 0.32871825
-0.49053812 -0.053791642 0.33048388
-0.49214944 -0.055524848 0.33048388
-0.47954747 -0.070170149 0.33048388
-0.47141775 -0.074535601 0.33048388
-0.47785914 -0.078083538 0.33048388
-0.46755344 -0.09197218 0.33048388
-0.4574385 -0.091842689 0.33048388
-0.45856136 -0.10164353 0.33048388
-0.44592616 -0.11488294 0.33048388
-0.44617125 -0.11315493 0.33048388
-0.43375134 -0.12706287 0.33048388
-0.42680821 -0.14202282 0.33048388
-0.43016616 -0.14162296 0.33048388
-0.42342854 -0.14515762 0.33048388
-0.41207623 -0.15933128 0.33048388
-0.40602422 -0.16439743 0.33048388
-0.3996262 -0.17007366 0.33048388
-0.39806008 -0.17996477 0.33048388
-0.38543287 -0.18728647 0.33048388
-0.38225514 -0.19637355 0.33048388
-0.3783693 -0.20252714 0.33048388
-0.3770059 -0.2147444 0.33048388
-0.36518574 -0.22556317 0.33048388
-0.35578024 -0.23149459 0.33048388
-0.3467938 -0.24893968 0.33048388
-0.35084993 -0.2522462 0.33048388
-0.33421496 -0.26188901 0.33048388
-0.32644847 -0.26847994 0.33048388
-0.32653883 -0.26956224 0.33048388
-0.3185696 -0.28551555 0.33048388
-0.31129867 -0.29416531 0.33048388
-0.29943705 -0.30378279 0.33048388
-0.2983014 -0.31229705 0.33048388
-0.5 -0.030300198 0.33021671
-0.5 -0.029490385 0.32905522
-0.49573645 -0.038221482 0.33048388
-0.48385173 -0.045798112 0.33048388
-0.47957757 -0.049499363 0.33048388
-0.47336802 -0.057569314 0.33048388
-0.47489464 -0.062462974 0.33048388
-0.46773544 -0.075335167 0.33048388
-0.45620358 -0.082080729 0.33048388
-0.45193723 -0.083390385 0.33048388
-0.44666326 -0.097969159 0.33048388
-0.44234812 -0.10727692 0.33048388
-0.43701184 -0.11472058 0.33048388
-0.42757243 -0.12502268 0.33048388
-0.42549846 -0.12483231 0.33048388
-0.41515955 -0.13612832 0.33048388
-0.41288844 -0.14878964 0.33048388
-0.40200758 -0.14939289 0.33048388
-0.3958081 -0.15899019 0.33048388
-0.39798254 -0.16685683 0.33048388
-0.38935593 -0.176119 0.33048388
-0.3869364 -0.18233089 0.33048388
-0.37470162 -0.18649708 0.33048388
-0.37141129 -0.20250461 0.33048388
-0.36905253 -0.20727731 0.33048388
-0.35591087 -0.21327427 0.33048388
-0.35228905 -0.22466718 0.33048388
-0.34097731 -0.23018709 0.33048388
-0.34239057 -0.23911829 0.33048388
-0.32488999 -0.25784066 0.33048388
-0.32113612 -0.26569933 0.33048388
-0.32365537 -0.26782304 0.33048388
-0.3082214 -0.28326017 0.33048388
-0.30388132 -0.28699461 0.33048388
-0.30060896 -0.29325533 0.33048388
-0.29590079 -0.30001724 0.33048388
-0.49348795 -0.018867461 0.33048388
-0.49543715 -0.023381058 0.33048388
-0.4802388 -0.038386434 0.33048388
-0.47699264 -0.041427691 0.33048388
-0.47442344 -0.050332915 0.33048388
-0.46924216 -0.05262056 0.33048388
-0.4609006 -0.059637938 0.33048388
-0.46154112 -0.063813083 0.33048388
-0.45883945 -0.074226573 0.33048388
-0.44442031 -0.078008451 0.33048388
-0.44003731 -0.095772728 0.33048388
-0.43263498 -0.098293953 0.33048388
-0.43194804 -0.10994225 0.33048388
-0.42238778 -0.11557707 0.33048388
-0.42390981 -0.11530538 0.33048388
-0.41329271 -0.12520102 0.33048388
-0.40466639 -0.13250621 0.33048388
-0.40311486 -0.1454474 0.33048388
-0.39359435 -0.1523785 0.33048388
-0.38556257 -0.15685074 0.33048388
-0.38677064 -0.16735217 0.33048388
-0.37529308 -0.17742556 0.33048388
-0.37588716 -0.18169807 0.33048388
-0.36282203 -0.19629347 0.33048388
-0.35953811 -0.20366587 0.33048388
-0.35135159 -0.21133207 0.33048388
-0.34176663 -0.21682011 0.33048388
-0.33412412 -0.23317234 0.33048388
-0.33585298 -0.23588622 0.33048388
-0.32292554 -0.24319227 0.33048388
-0.31785107 -0.25829762 0.33048388
-0.30556023 -0.26783264 0.33048388
-0.30059025 -0.27421942 0.33048388
-0.2960442 -0.2812539 0.33048388
-0.29103732 -0.29293501 0.33048388
-0.28755432 -0.29837114 0.33048388
-0.27465528 -0.31025186 0.33048388
-0.26755708 -0.31614697 0.33048388
-0.48723501 -0.0067830705 0.33048388
-0.48679325 -0.010833635 0.33048388
-0.48003203 -0.022296568 0.33048388
-0.47532386 -0.035221253 0.33048388
-0.46310341 -0.039399777 0.33048388
-0.46005085 -0.052822523 0.33048388
-0.45706594 -0.051986922 0.33048388
-0.44507548 -0.064193919 0.33048388
-0.44516817 -0.066258311 0.33048388
-0.44302315 -0.079586461 0.33048388
-0.43328175 -0.076124474 0.33048388
-0.43261468 -0.085402399 0.33048388
-0.41928706 -0.10160832 0.33048388
-0.41633624 -0.11132783 0.33048388
-0.41249391 -0.11926758 0.33048388
-0.40884733 -0.122818 0.33048388
-0.39621171 -0.13398664 0.33048388
-0.39623335 -0.13566512 0.33048388
-0.38944179 -0.14634007 0.33048388
-0.38157427 -0.14825326 0.33048388
-0.37184405 -0.15996775 0.33048388
-0.36664444 -0.17427351 0.33048388
-0.36136022 -0.17335156 0.33048388
-0.3507036 -0.18536128 0.33048388
-0.35004246 -0.1948806 0.33048388
-0.34661621 -0.19918247 0.33048388
-0.33810905 -0.21004966 0.33048388
-0.33309901 -0.22560818 0.33048388
-0.31943884 -0.23576388 0.33048388
-0.31341055 -0.24614282 0.33048388
-0.31522769 -0.24931534 0.33048388
-0.29953617 -0.26159152 0.33048388
-0.29641113 -0.26727128 0.33048388
-0.28496847 -0.27536339 0.33048388
-0.28366342 -0.28203785 0.33048388
-0.27742293 -0.29317993 0.33048388
-0.27040857 -0.30042663 0.33048388
-0.26243493 -0.31289685 0.33048388
-0.25386295 -0.31664038 0.33048388
-0.48739964 -0.0059568845 0.33048388
-0.47552383 -0.014610455 0.33048388
-0.47258919 -0.022784505 0.33048388
-0.46521971 -0.020825321 0.33048388
-0.4636521 -0.035290822 0.33048388
-0.45345452 -0.036548279 0.33048388
-0.44645134 -0.049696859 0.33048388
-0.44703549 -0.056282621 0.33048388
-0.4417932 -0.065633066 0.33048388
-0.43170407 -0.071011774 0.33048388
-0.43164283 -0.071127959 0.33048388
-0.42283514 -0.090117425 0.33048388
-0.41458502 -0.096102342 0.33048388
-0.40775087 -0.10147104 0.33048388
-0.40718493 -0.10523947 0.33048388
-0.4014397 -0.1135878 0.33048388
-0.38964427 -0.13032553 0.33048388
-0.38433474 -0.13089938 0.33048388
-0.38097662 -0.13510555 0.33048388
-0.3777788 -0.13950792 0.33048388
-0.36225185 -0.15861918 0.33048388
-0.36088911 -0.15931059 0.33048388
-0.35614362 -0.17755355 0.33048388
-0.35147488 -0.18280825 0.33048388
-0.33679834 -0.19377655 0.33048388
-0.34046397 -0.19724023 0.33048388
-0.32935885 -0.20361251 0.33048388
-0.32814991 -0.21041599 0.33048388
-0.31470796 -0.22189257 0.33048388
-0.30921906 -0.22752899 0.33048388
-0.30855483 -0.2380894 0.33048388
-0.2976476 -0.24388117 0.33048388
-0.29030216 -0.25563806 0.33048388
-0.28046012 -0.26767498 0.33048388
-0.27424297 -0.2736102 0.33048388
-0.26173526 -0.29061952 0.33048388
-0.26412919 -0.29198802 0.33048388
-0.25507909 -0.2982069 0.33048388
-0.48096374 0.002159924 0.33048388
-0.47450116 -0.0024474035 0.33048388
-0.4674128 -0.013929994 0.33048388
-0.46224281 -0.014162481 0.33048388
-0.45582232 -0.024719948 0.33048388
-0.45054731 -0.027956177 0.33048388
-0.4469716 -0.041162878 0.33048388
-0.43664986 -0.053525545 0.33048388
-0.43421197 -0.060652651 0.33048388
-0.43033633 -0.057702802 0.33048388
-0.42614472 -0.072610132 0.33048388
-0.41518742 -0.080268957 0.33048388
-0.40788412 -0.08830215 0.33048388
-0.40738577 -0.093090758 0.33048388
-0.40101704 -0.10073036 0.33048388
-0.39515784 -0.11415277 0.33048388
-0.38881052 -0.11438832 0.33048388
-0.37575206 -0.13083543 0.33048388
-0.37067524 -0.13361427 0.33048388
-0.3640106 -0.13643743 0.33048388
-0.36309344 -0.1439829 0.33048388
-0.35319892 -0.15653762 0.33048388
-0.34351024 -0.16692013 0.33048388
-0.34424505 -0.17812745 0.33048388
-0.32948744 -0.18896396 0.33048388
-0.32936928 -0.18624169 0.33048388
-0.31706455 -0.1988917 0.33048388
-0.31231523 -0.20144564 0.33048388
-0.30254719 -0.22337796 0.33048388
-0.30112028 -0.22158851 0.33048388
-0.29229105 -0.23346455 0.33048388
-0.28657362 -0.2439284 0.33048388
-0.28290516 -0.24473892 0.33048388
-0.27840185 -0.25641525 0.33048388
-0.27237317 -0.26045185 0.33048388
-0.26436305 -0.27202541 0.33048388
-0.26251933 -0.27893004 0.33048388
-0.2460776 -0.29842472 0.33048388
-0.23455189 -0.30528384 0.33048388
-0.2314039 -0.31197068 0.33048388
-0.22556104 -0.31461626 0.33048388
-0.47036275 0.0062883245 0.33048388
-0.47028682 0.0073258565 0.33048388
-0.45909891 -0.0018383344 0.33048388
-0.45401725 -0.014479682 0.33048388
-0.44663495 -0.021400958 0.33048388
-0.4412244 -0.029623458 0.33048388
-0.4377923 -0.035650875 0.33048388
-0.42975473 -0.042610835 0.33048388
-0.42653573 -0.051111925 0.33048388
-0.42100146 -0.057101946 0.33048388
-0.42150319 -0.063980423 0.33048388
-0.41071692 -0.071413368 0.33048388
-0.40310201 -0.076028146 0.33048388
-0.4013091 -0.08881592 0.33048388
-0.38828611 -0.092947587 0.33048388
-0.38678715 -0.10550132 0.33048388
-0.38380414 -0.11369777 0.33048388
-0.37491032 -0.11851697 0.33048388
-0.37073198 -0.12811987 0.33048388
-0.36076155 -0.13350055 0.33048388
-0.35780451 -0.1437335 0.33048388
-0.35113764 -0.15583295 0.33048388
-0.33647469 -0.15723437 0.33048388
-0.34161448 -0.16428915 0.33048388
-0.330632 -0.17115149 0.33048388
-0.31703144 -0.18440877 0.33048388
-0.31457832 -0.1893796 0.33048388
-0.31050506 -0.19284396 0.33048388
-0.30385417 -0.21302478 0.33048388
-0.29655287 -0.21729763 0.33048388
-0.28757593 -0.22409922 0.33048388
-0.28129414 -0.23321019 0.33048388
-0.27588418 -0.24222948 0.33048388
-0.26927575 -0.2481395 0.33048388
-0.26294616 -0.25669754 0.33048388
-0.25710735 -0.27016711 0.33048388
-0.25010157 -0.2839599 0.33048388
-0.24900019 -0.28381631 0.33048388
-0.24083695 -0.29184303 0.33048388
-0.2295163 -0.30922359 0.33048388
-0.46452612 0.015671337 0.33048388
-0.45885625 0.0077908845 0.33048388
-0.44783509 -0.0068840357 0.33048388
-0.45152479 -0.0063297595 0.33048388
-0.43868077 -0.020382151 0.33048388
-0.43146577 -0.020632958 0.33048388
-0.4312304 -0.02489295 0.33048388
-0.41955066 -0.038101982 0.33048388
-0.42766443 -0.037639692 0.33048388
-0.41368866 -0.047934361 0.33048388
-0.4128741 -0.059550107 0.33048388
-0.40440693 -0.069864705 0.33048388
-0.39688665 -0.072660543 0.33048388
-0.38562214 -0.085481577 0.33048388
-0.38723195 -0.086787239 0.33048388
-0.37959671 -0.097061269 0.33048388
-0.37320623 -0.108009 0.33048388
-0.36787111 -0.1185387 0.33048388
-0.36426464 -0.11983307 0.33048388
-0.35411122 -0.12701859 0.33048388
-0.3445926 -0.13467254 0.33048388
-0.33738479 -0.14308213 0.33048388
-0.33190721 -0.15271394 0.33048388
-0.32111111 -0.16333501 0.33048388
-0.3204793 -0.16553172 0.33048388
-0.31529033 -0.17131145 0.33048388
-0.30382544 -0.18434316 0.33048388
-0.3006947 -0.19663243 0.33048388
-0.29394174 -0.20120044 0.33048388
-0.29084757 -0.21642397 0.33048388
-0.28540826 -0.21230882 0.33048388
-0.28049129 -0.22107838 0.33048388
-0.27507728 -0.23562555 0.33048388
-0.26004407 -0.24303982 0.33048388
-0.25767201 -0.25512102 0.33048388
-0.25119588 -0.26119244 0.33048388
-0.23423587 -0.26939496 0.33048388
-0.2392873 -0.27717268 0.33048388
-0.23313721 -0.28505459 0.33048388
-0.2199512 -0.29721844 0.33048388
-0.21076971 -0.30593726 0.33048388
-0.46182948 0.024758665 0.33048388
-0.45798832 0.012767088 0.33048388
-0.44383806 0.0066007031 0.33048388
-0.44653228 0.002038805 0.33048388
-0.4417443 -0.0010849183 0.33048388
-0.42776328 -0.015661333 0.33048388
-0.43115756 -0.018745894 0.33048388
-0.41460127 -0.033634976 0.33048388
-0.41455257 -0.039715271 0.33048388
-0.40495169 -0.049581047 0.33048388
-0.40094686 -0.055722106 0.33048388
-0.392414 -0.060569316 0.33048388
-0.38949504 -0.073600866 0.33048388
-0.3849712 -0.073785163 0.33048388
-0.37457052 -0.081747897 0.33048388
-0.37095487 -0.086654253 0.33048388
-0.36377603 -0.09514685 0.33048388
-0.35837555 -0.10650514 0.33048388
-0.35892889 -0.1138477 0.33048388
-0.35102579 -0.11478005 0.33048388
-0.34271967 -0.13026221 0.33048388
-0.33411708 -0.14443772 0.33048388
-0.32545099 -0.14370167 0.33048388
-0.32295617 -0.15652353 0.33048388
-0.31816533 -0.16073319 0.33048388
-0.31149489 -0.16881081 0.33048388
-0.29817605 -0.17879961 0.33048388
-0.2949414 -0.18921907 0.33048388
-0.28247914 -0.19367388 0.33048388
-0.28820306 -0.19966063 0.33048388
-0.2761206 -0.20714381 0.33048388
-0.26859856 -0.22109266 0.33048388
-0.26203349 -0.23525596 0.33048388
-0.25410163 -0.23691413 0.33048388
-0.24453151 -0.24677874 0.33048388
-0.2390542 -0.26179954 0.33048388
-0.22954573 -0.26305783 0.33048388
-0.22862875 -0.27308941 0.33048388
-0.21796024 -0.28680676 0.33048388
-0.20851606 -0.28952816 0.33048388
-0.19831087 -0.30536595 0.33048388
-0.1927561 -0.31426466 0.33048388
-0.45414904 0.023959637 0.33048388
-0.44813916 0.016815398 0.33048388
-0.441652 0.013382841 0.33048388
-0.44114503 0.0031133951 0.33048388
-0.42516252 -0.00075046025 0.33048388
-0.4235377 -0.014046547 0.33048388
-0.42364559 -0.016023979 0.33048388
-0.41447031 -0.027079865 0.33048388
-0.4075979 -0.025634399 0.33048388
-0.40287688 -0.038329173 0.33048388
-0.3967683 -0.047170397 0.33048388
-0.39139444 -0.058295615 0.33048388
-0.38074112 -0.060246442 0.33048388
-0.37712196 -0.066017985 0.33048388
-0.3689867 -0.078589611 0.33048388
-0.36534661 -0.083204098 0.33048388
-0.3579281 -0.094320878 0.33048388
-0.34913242 -0.097347006 0.33048388
-0.34820205 -0.10183595 0.33048388
-0.33878893 -0.11692701 0.33048388
-0.33561927 -0.12867676 0.33048388
-0.32654381 -0.12958853 0.33048388
-0.32492614 -0.13669366 0.33048388
-0.31369361 -0.14236997 0.33048388
-0.3076086 -0.15499982 0.33048388
-0.30002487 -0.1657455 0.33048388
-0.29484767 -0.17222887 0.33048388
-0.28934899 -0.17941204 0.33048388
-0.28196591 -0.18452184 0.33048388
-0.27861333 -0.19312316 0.33048388
-0.27227235 -0.20810381 0.33048388
-0.25820437 -0.21055682 0.33048388
-0.25491437 -0.22722585 0.33048388
-0.25160766 -0.23149484 0.33048388
-0.23751079 -0.2387833 0.33048388
-0.23569563 -0.24548231 0.33048388
-0.22735605 -0.24999942 0.33048388
-0.21614367 -0.26982716 0.33048388
-0.20393923 -0.27803475 0.33048388
-0.20174392 -0.28456372 0.33048388
-0.19863264 -0.29744706 0.33048388
-0.19233073 -0.30056575 0.33048388
-0.19088914 -0.31192014 0.33048388
-0.17543595 -0.3146188 0.33048388
-0.44477966 0.031419203 0.33048388
-0.43693045 0.026885143 0.33048388
-0.43570331 0.015712952 0.33048388
-0.43279833 0.012585211 0.33048388
-0.41919085 0.001447761 0.33048388
-0.42390051 -0.0047679949 0.33048388
-0.41413996 -0.0083573554 0.33048388
-0.40245742 -0.019644853 0.33048388
-0.40170404 -0.02186304 0.33048388
-0.39937735 -0.033109669 0.33048388
-0.38746986 -0.033684656 0.33048388
-0.38217217 -0.046555612 0.33048388
-0.37969044 -0.055370387 0.33048388
-0.36579522 -0.06053758 0.33048388
-0.3680293 -0.070000745 0.33048388
-0.36134163 -0.073948503 0.33048388
-0.35000414 -0.086378068 0.33048388
-0.34916958 -0.089543372 0.33048388
-0.34066927 -0.093499936 0.33048388
-0.33225697 -0.10117452 0.33048388
-0.32493517 -0.10970607 0.33048388
-0.32445636 -0.1202943 0.33048388
-0.31762224 -0.12751347 0.33048388
-0.31063586 -0.13856353 0.33048388
-0.29929158 -0.14965992 0.33048388
-0.30134642 -0.15674537 0.33048388
-0.29029423 -0.16500591 0.33048388
-0.28107554 -0.17815955 0.33048388
-0.27397558 -0.17865433 0.33048388
-0.26658159 -0.1895611 0.33048388
-0.26135015 -0.19794682 0.33048388
-0.2529633 -0.20612526 0.33048388
-0.25235483 -0.21330559 0.33048388
-0.24217002 -0.22816278 0.33048388
-0.23342229 -0.22860152 0.33048388
-0.22018906 -0.24547248 0.33048388
-0.21883433 -0.25631765 0.33048388
-0.21308789 -0.25556108 0.33048388
-0.20576732 -0.26829082 0.33048388
-0.20107993 -0.2783176 0.33048388
-0.19200411 -0.28026992 0.33048388
-0.18399504 -0.30313277 0.33048388
-0.17389889 -0.30645084 0.33048388
-0.17079194 -0.31665176 0.33048388
-0.43449679 0.040329304 0.33048388
-0.43753472 0.034290958 0.33048388
-0.43255967 0.02541812 0.33048388
-0.4235518 0.018970525 0.33048388
-0.41644773 0.0047682095 0.33048388
-0.41054934 3.4076736e-05 0.33048388
-0.41144177 -0.00054500467 0.33048388
-0.40462708 -0.011153811 0.33048388
-0.39992988 -0.01711325 0.33048388
-0.39039716 -0.02316694 0.33048388
-0.38297674 -0.030802913 0.33048388
-0.37680197 -0.036312986 0.33048388
-0.36975145 -0.042768355 0.33048388
-0.36438331 -0.053338517 0.33048388
-0.36033151 -0.058326818 0.33048388
-0.35214272 -0.075317688 0.33048388
-0.34969094 -0.077459879 0.33048388
-0.34209213 -0.084421113 0.33048388
-0.33457381 -0.092039376 0.33048388
-0.33311084 -0.09844929 0.33048388
-0.32066229 -0.10844076 0.33048388
-0.31297886 -0.11928597 0.33048388
-0.30850142 -0.12800899 0.33048388
-0.307423 -0.13003567 0.33048388
-0.29992551 -0.13847758 0.33048388
-0.28666979 -0.15069661 0.33048388
-0.273895 -0.1641019 0.33048388
-0.28177747 -0.15759276 0.33048388
-0.26746246 -0.17470203 0.33048388
-0.25531137 -0.19023006 0.33048388
-0.25228783 -0.18568136 0.33048388
-0.24792016 -0.20178153 0.33048388
-0.24723779 -0.20806016 0.33048388
-0.23337597 -0.22131515 0.33048388
-0.21965754 -0.22355895 0.33048388
-0.22533849 -0.23619047 0.33048388
-0.20831129 -0.24897878 0.33048388
-0.20091943 -0.25266901 0.33048388
-0.2004313 -0.25639153 0.33048388
-0.19097456 -0.2677553 0.33048388
-0.18292186 -0.28362226 0.33048388
-0.17619967 -0.29120484 0.33048388
-0.16304475 -0.29516232 0.33048388
-0.16042405 -0.31135553 0.33048388
-0.1553935 -0.31606466 0.33048388
-0.43231142 0.042458698 0.33048388
-0.42852443 0.038652766 0.33048388
-0.42502657 0.031011017 0.33048388
-0.42004973 0.024188953 0.33048388
-0.41275701 0.018264955 0.33048388
-0.40784454 0.0056373347 0.33048388
-0.39671302 0.00017788523 0.33048388
-0.3905766 -0.0061419178 0.33048388
-0.38685533 -0.017933691 0.33048388
-0.38664916 -0.021347964 0.33048388
-0.37619838 -0.028273277 0.33048388
-0.37315691 -0.033879504 0.33048388
-0.36069685 -0.045950975 0.33048388
-0.35654324 -0.049467873 0.33048388
-0.35322696 -0.057414021 0.33048388
-0.35066497 -0.0618109 0.33048388
-0.34571084 -0.072562143 0.33048388
-0.32978553 -0.086231224 0.33048388
-0.32510498 -0.087402657 0.33048388
-0.31757087 -0.092835315 0.33048388
-0.30980948 -0.097573616 0.33048388
-0.30096158 -0.11063778 0.33048388
-0.30854678 -0.11459322 0.33048388
-0.30076024 -0.12655152 0.33048388
-0.29038355 -0.13781218 0.33048388
-0.28655341 -0.14057566 0.33048388
-0.27448723 -0.14948143 0.33048388
-0.27379087 -0.15014678 0.33048388
-0.26015815 -0.17574371 0.33048388
-0.25180319 -0.17555596 0.33048388
-0.25283644 -0.18198122 0.33048388
-0.24319153 -0.19388393 0.33048388
-0.22778027 -0.20467174 0.33048388
-0.23268902 -0.20671298 0.33048388
-0.21629862 -0.22294021 0.33048388
-0.2172703 -0.22624037 0.33048388
-0.20859642 -0.23224756 0.33048388
-0.19490665 -0.24165264 0.33048388
-0.18595245 -0.2594519 0.33048388
-0.17918856 -0.26424837 0.33048388
-0.1766198 -0.27040333 0.33048388
-0.17334062 -0.27609807 0.33048388
-0.15887275 -0.29551482 0.33048388
-0.15448062 -0.293787 0.33048388
-0.13843027 -0.31025136 0.33048388
-0.42876959 0.048302449 0.33048388
-0.42425916 0.042962413 0.33048388
-0.41735435 0.040111046 0.33048388
-0.41042936 0.026042752 0.33048388
-0.40313548 0.021475242 0.33048388
-0.39586198 0.011556998 0.33048388
-0.39002973 0.014592642 0.33048388
-0.39133826 0.003704234 0.33048388
-0.37726721 -0.002233393 0.33048388
-0.37428281 -0.01731934 0.33048388
-0.37237668 -0.01606068 0.33048388
-0.35990253 -0.02682492 0.33048388
-0.35218933 -0.031428467 0.33048388
-0.35051671 -0.045523308 0.33048388
-0.34682453 -0.045742758 0.33048388
-0.33445275 -0.063491829 0.33048388
-0.33220443 -0.059084017 0.33048388
-0.32888371 -0.068390287 0.33048388
-0.3219825 -0.079277873 0.33048388
-0.31040451 -0.089593455 0.33048388
-0.30545774 -0.099084035 0.33048388
-0.30692047 -0.10308592 0.33048388
-0.2961795 -0.1059157 0.33048388
-0.28837988 -0.1166463 0.33048388
-0.28309906 -0.12040731 0.33048388
-0.27748862 -0.13407885 0.33048388
-0.27004898 -0.14245012 0.33048388
-0.26195541 -0.14799006 0.33048388
-0.25823966 -0.1596822 0.33048388
-0.24238068 -0.17004773 0.33048388
-0.23764521 -0.17326553 0.33048388
-0.23639278 -0.17714848 0.33048388
-0.23214065 -0.18929553 0.33048388
